ncols        121
nrows        121
xllcorner    -120.004166666667
yllcorner    33.995833333333
cellsize     0.008333333333
NODATA_value -32767
 1343 1164 1074 948 894 754 700 661 649 615 622 625 623 591 642 635 639 616 580 588 559 558 557 542 557 587 652 662 647 690 806 772 749 947 842 868 869 779 732 742 746 833 856 868 779 966 927 986 1049 1089 1055 1005 1013 991 953 974 961 928 888 882 862 882 802 812 824 670 779 748 735 678 646 536 545 607 639 624 537 461 399 438 441 386 379 387 383 395 401 400 393 382 360 349 373 376 372 387 407 407 404 394 385 399 392 463 380 352 486 406 577 552 522 530 552 603 482 466 538 499 520 500 462
 1433 1456 1168 1075 1076 862 742 730 697 654 670 674 655 657 659 666 696 674 658 590 592 612 573 612 554 559 569 577 604 622 658 677 665 847 751 809 780 759 708 696 705 725 747 783 790 841 993 1047 1142 1138 1092 1051 987 971 984 1044 1033 1022 946 911 862 847 803 822 754 779 741 796 800 759 677 627 580 589 549 547 614 513 432 493 578 518 489 445 430 432 439 434 424 407 391 397 418 418 401 410 423 445 449 451 574 587 584 594 446 529 560 411 519 600 619 643 720 673 624 503 512 486 436 417 404
 1200 1499 1394 1240 1095 1035 859 783 724 689 681 708 689 692 698 675 700 679 630 640 622 621 611 638 612 586 586 574 569 576 595 632 642 677 674 653 659 697 648 648 655 693 714 738 839 856 960 939 1073 1070 1016 1100 1103 881 990 926 984 995 968 948 931 923 859 830 826 863 829 814 817 811 802 725 648 618 643 597 500 479 507 496 537 546 487 489 448 462 471 470 456 435 434 428 453 477 480 476 531 552 593 660 689 709 690 579 450 660 764 572 515 673 758 799 839 761 700 676 580 544 492 448 429
 1160 1392 1418 1235 1364 1049 998 991 798 777 719 721 729 719 715 733 749 672 689 639 641 659 659 658 651 630 616 598 613 609 586 588 590 596 599 604 617 620 629 634 640 641 649 656 690 727 749 877 959 1071 890 985 1008 897 917 858 899 886 886 996 978 969 904 889 870 828 854 880 864 833 860 730 800 814 806 674 734 628 580 647 603 521 492 482 501 498 508 507 487 494 495 506 561 600 621 586 694 704 549 682 744 741 794 771 580 654 886 792 586 678 887 962 952 869 852 788 700 683 573 491 446
 1255 1397 1470 1373 1442 1417 1152 966 999 876 778 782 776 742 740 754 730 710 666 710 711 704 671 686 678 666 655 610 641 636 623 611 601 608 613 618 622 625 629 636 641 643 647 653 656 662 682 682 732 779 851 846 867 808 794 856 818 870 867 966 988 1030 992 917 866 867 848 849 879 916 900 875 884 842 926 872 858 751 631 724 689 586 547 595 610 521 548 544 526 547 586 639 619 673 749 631 662 685 604 696 811 808 954 953 818 688 892 925 748 660 933 1164 1050 971 957 850 867 702 666 575 536
 1139 1202 1232 1238 1429 1477 1340 1183 1131 951 887 864 854 824 789 768 755 757 712 742 745 747 692 715 699 666 675 640 670 659 658 648 632 629 625 626 631 639 640 649 648 650 647 658 659 666 672 675 682 689 696 705 729 738 784 753 794 808 849 847 883 910 996 978 938 916 894 911 988 984 938 911 1001 1038 1021 986 901 800 636 733 655 725 598 628 610 609 588 592 610 675 664 693 748 761 711 707 784 711 635 860 828 877 972 936 788 908 1001 1072 915 624 983 1150 1178 1085 1090 1046 945 925 819 703 661
 907 1091 1038 1082 1186 1494 1523 1331 1273 983 1213 939 1128 1025 886 869 805 827 766 787 786 755 758 753 739 733 714 663 690 694 692 677 657 651 643 643 641 642 653 658 663 665 666 663 665 667 671 679 685 690 695 700 708 718 717 717 732 736 753 774 799 849 914 920 947 927 910 935 972 967 1041 990 1049 1032 1060 1098 969 837 635 834 807 786 718 691 679 693 734 682 793 767 792 755 858 786 772 767 780 749 674 820 871 898 835 882 795 944 1013 1209 945 705 822 976 1132 1231 1206 1164 1186 1075 995 773 673
 868 832 927 1045 1217 1232 1408 1402 1189 1248 1180 1046 1290 1166 961 993 860 799 856 835 831 795 811 783 753 756 755 717 713 724 727 710 685 663 662 657 654 654 664 669 673 676 676 675 676 679 681 682 685 692 699 704 710 713 716 717 718 727 741 758 775 796 818 843 861 875 900 966 999 1032 1049 1084 1071 1075 1109 1122 1022 907 684 889 991 821 783 728 687 781 791 819 869 897 854 803 972 1083 989 935 828 768 766 728 861 883 939 929 984 999 1081 1165 1054 716 865 1046 1138 1322 1379 1303 1204 1126 957 888 753
 903 1042 858 1034 1006 1168 1305 1437 1432 1321 1215 1095 1339 1162 1182 948 944 989 933 933 947 930 869 847 771 812 778 754 746 763 765 736 709 681 689 680 673 667 674 681 687 688 686 684 687 692 694 692 693 696 701 707 713 719 720 723 723 729 738 752 780 848 859 885 873 911 953 1027 1089 1141 1164 1154 1109 1177 1201 1220 1123 963 750 896 918 914 876 774 780 838 993 964 1075 1062 959 922 953 1086 1261 1150 1073 917 833 781 907 1028 1065 1112 1106 1273 1224 1124 1055 896 1009 1200 1192 1198 1333 1174 842 824 793 713 650
 765 814 821 806 913 1049 1283 1185 1366 1506 1328 1257 1416 1388 1234 1052 1099 1334 1183 1080 1160 1053 941 919 900 875 831 788 783 785 790 759 734 733 729 720 697 685 692 701 704 705 699 699 698 702 706 706 704 701 705 710 717 721 728 731 732 735 740 764 810 917 923 934 928 944 1022 1090 1111 1199 1228 1268 1259 1188 1124 1006 900 816 1011 1022 1030 961 830 877 943 953 1056 1205 1195 1089 1127 980 1054 1078 1221 1225 1219 1064 953 878 1145 1208 1482 1300 1186 1338 1275 976 1018 1028 924 934 978 1175 1284 1129 1115 992 784 892 866
 928 816 848 765 862 1046 993 1095 1298 1340 1419 1578 1516 1568 1538 1243 1287 1464 1487 1138 1402 1179 1044 1194 980 1057 911 813 836 845 792 778 752 793 780 762 726 694 715 719 717 721 713 714 714 717 719 720 714 711 714 718 722 729 735 740 742 747 753 767 817 859 951 1035 1001 987 1029 1093 1156 1201 1254 1298 1348 1301 1192 1062 942 1023 1150 1066 1080 1101 1036 951 1194 1197 1316 1320 1313 1181 1108 1151 1169 1207 1305 1313 1137 1007 934 1010 917 1223 1292 1559 1552 1466 1402 1045 1203 1065 965 983 1119 1190 1080 1074 1010 888 819 934 993
 809 822 662 853 834 834 1037 1065 1225 1126 1413 1340 1399 1476 1536 1392 1550 1595 1375 1344 1443 1243 1267 1178 1210 1101 1060 939 886 876 834 789 794 893 809 775 741 724 737 742 736 736 732 736 734 735 736 736 730 725 729 735 733 736 740 748 751 758 765 770 795 881 974 979 1036 1055 1030 1101 1174 1204 1260 1308 1338 1361 1345 1310 1211 1177 1133 1172 1237 1256 1077 959 1283 1453 1560 1546 1509 1279 1360 1431 1269 1482 1548 1335 1139 1109 1475 1479 1279 990 1386 1589 1730 1569 1341 1130 1264 1083 1033 1053 1114 1170 1211 1066 953 943 1048 1114 1130
 781 725 636 759 800 989 1193 996 1095 1160 1196 1119 1351 1493 1549 1447 1498 1699 1615 1622 1544 1445 1338 1259 1423 1347 1167 960 1022 965 877 840 801 841 812 806 748 739 769 772 772 762 755 759 755 759 759 759 751 746 747 751 747 755 754 753 758 766 776 786 803 859 871 945 1029 1043 999 1114 1072 1202 1236 1247 1324 1375 1413 1399 1428 1311 1246 1074 1058 1016 976 935 1165 1392 1581 1727 1718 1612 1561 1480 1565 1797 1500 1334 1169 1310 1640 1425 1174 1211 1139 1264 1439 1409 1229 1317 1375 1121 1298 1239 1185 1280 1232 1165 1006 1219 992 1280 1216
 747 692 621 762 923 1058 1184 947 806 913 968 1265 1313 1231 1508 1191 1360 1619 1331 1458 1402 1555 1672 1502 1328 1186 1043 1071 1202 1074 954 893 863 880 806 790 753 789 823 825 821 782 812 788 782 786 783 785 781 778 769 771 770 774 772 771 769 771 783 795 810 829 895 950 992 946 1030 985 1032 1070 1141 1196 1243 1277 1342 1342 1351 1403 1255 1183 1185 1217 1107 1063 1074 1036 1127 1409 1571 1600 1863 1714 1898 2011 1857 1665 1344 1289 1657 1601 1498 1244 1235 1169 1530 1745 1606 1517 1299 1287 1472 1672 1353 1626 1543 1258 1103 1282 1297 1104 1262
 783 617 590 709 812 1001 823 964 820 1021 853 1066 1215 1137 1263 1093 1332 1446 1323 1219 1294 1374 1600 1663 1499 1244 1097 1260 1307 1175 1054 959 881 912 864 797 842 877 845 895 856 800 831 811 821 805 825 818 833 819 804 812 802 804 813 818 812 797 786 800 816 833 856 872 892 914 938 966 984 1006 1053 1120 1260 1272 1290 1291 1338 1360 1307 1321 1244 1378 1261 1209 1289 1298 1350 1312 1163 1423 1622 1830 2062 2123 1963 1691 1563 1600 1702 1819 1547 1378 1497 1370 1436 1562 1745 1856 1670 1366 1547 2010 1648 1719 1651 1278 1339 1246 1601 1328 1276
 713 547 672 851 910 783 730 835 585 628 790 855 942 1125 930 1288 1444 1245 1244 1109 1337 1305 1388 1450 1444 1209 1273 1448 1224 1130 1033 939 906 862 848 797 871 892 951 899 857 832 848 847 848 839 845 867 879 847 819 825 850 834 880 891 866 862 794 803 809 823 872 906 984 1068 1010 1012 1061 1149 1147 1110 1185 1201 1305 1326 1430 1463 1558 1555 1442 1483 1498 1435 1554 1572 1561 1543 1513 1325 1389 1479 1580 1983 2019 2052 2044 1961 2092 2164 1758 1648 1593 1454 1276 1578 1962 1727 1625 1534 1751 1840 1965 1809 1635 1473 1389 1354 1664 1550 1563
 512 725 994 1053 876 720 635 702 694 830 949 816 769 808 1121 1260 1470 1249 966 1044 972 1297 1386 1435 1525 1411 1341 1309 1307 1267 1027 1024 902 1022 924 871 852 897 955 921 849 868 887 904 887 852 923 897 895 864 846 868 875 877 911 941 931 855 808 840 812 835 863 912 972 1045 1127 1221 1263 1219 1188 1217 1214 1199 1241 1316 1337 1385 1470 1485 1544 1555 1582 1616 1559 1553 1588 1607 1615 1628 1471 1573 1751 1823 1889 1992 2028 2050 2013 2021 2124 2066 1885 1590 1394 1431 1589 1800 1947 1714 1853 2039 2067 1841 1504 1554 1388 1575 1702 1871 1592
 562 807 936 812 673 650 683 514 782 712 784 668 939 834 1037 1143 1101 1213 1023 877 1197 1278 1421 1423 1381 1409 1366 1465 1186 1148 1160 1096 1016 950 1042 945 900 994 954 883 907 926 923 965 925 891 957 947 922 899 876 902 888 965 956 954 907 822 843 870 827 830 841 906 946 983 1075 1130 1210 1303 1320 1344 1330 1335 1311 1278 1297 1306 1328 1452 1493 1507 1489 1497 1488 1466 1401 1440 1495 1512 1576 1661 1699 1803 1846 1889 1800 1775 1754 1744 1746 1727 1713 1554 1560 1439 1722 1914 2001 2017 1933 1969 2083 1787 1772 1742 1534 1719 1979 1815 1775
 534 759 778 878 876 645 531 609 513 619 563 768 797 686 765 875 1006 1028 899 1013 1276 1353 1440 1349 1293 1207 1271 1414 1379 1303 1239 1360 1263 1053 1024 1021 929 1018 1069 911 942 1039 969 991 943 962 985 991 969 943 937 969 946 926 987 869 841 868 940 880 872 840 844 856 965 1031 1102 1138 1156 1222 1305 1383 1173 1194 1259 1153 1155 1228 1306 1287 1436 1437 1431 1399 1365 1335 1397 1392 1453 1475 1526 1690 1781 1962 2006 2002 1836 1833 1722 1719 1662 1670 1624 1644 1614 1590 1613 1647 1704 1815 1904 1911 1920 1908 1908 1729 1796 1790 2014 1856 1889
 636 564 599 773 601 663 507 489 600 492 607 547 640 676 820 852 938 794 697 928 1236 1055 1230 1012 960 1052 1348 1327 1393 1327 1362 1258 1107 1169 1115 1054 1144 1077 1184 1089 1030 1117 1101 1013 1031 954 1025 1036 1025 1068 1029 987 978 972 952 857 877 947 968 954 908 868 853 865 898 944 1011 1169 1219 1256 1242 1257 1140 1114 1097 1109 1119 1160 1215 1225 1243 1280 1258 1269 1286 1308 1336 1369 1398 1448 1517 1705 1831 1936 2172 2231 2201 2129 1821 1884 1803 1801 1797 1833 1713 1768 1791 1935 1921 1876 1821 1761 1707 1730 1741 1757 1825 1941 1959 1923 2096
 461 588 685 537 491 466 431 546 732 572 459 471 487 567 685 615 782 796 997 1008 917 859 851 952 1321 1315 1354 1411 1403 1426 1366 1216 1371 1447 1308 1192 1202 1255 1178 1108 1015 1115 1229 1122 1046 1068 1074 1079 1129 1092 1054 1056 1007 979 877 942 928 992 994 1001 953 917 867 875 887 930 1080 1121 1093 1075 1071 1107 1092 1077 1068 1099 1131 1129 1151 1172 1192 1207 1264 1268 1366 1318 1380 1404 1434 1519 1570 1741 1944 2156 2305 2493 2474 2097 1980 2034 1891 2012 1925 2164 1999 2107 1946 2141 2049 1989 1864 1796 1737 1704 1703 1650 1643 1715 1857 1815 1946
 434 381 378 383 487 536 575 667 776 605 763 570 756 635 570 535 569 611 679 824 663 890 1169 1082 1080 1119 1275 1363 1379 1369 1500 1453 1412 1394 1521 1503 1446 1400 1215 1142 1014 1133 1240 1292 1171 1158 1253 1163 1199 1261 1282 1271 1005 913 898 937 1077 1084 1041 1073 1033 941 877 882 893 913 985 984 985 993 1015 1022 1037 1051 1076 1220 1235 1157 1216 1179 1185 1208 1250 1259 1280 1354 1389 1494 1533 1574 1688 1956 2086 2263 2322 2248 2312 2391 2419 2179 2184 2087 2295 2362 2422 2335 2394 2378 2309 2098 1986 1876 1775 1709 1684 1687 1675 1623 1661 1625 1715
 383 598 640 707 831 700 993 1121 1040 762 832 711 779 621 687 741 813 844 676 589 602 714 776 728 934 936 1108 1157 1349 1404 1450 1354 1369 1446 1424 1497 1404 1312 1186 1304 1255 1088 1142 1296 1256 1211 1444 1302 1491 1235 1120 1034 1004 913 944 1004 1004 1085 1042 1000 1004 949 941 890 901 916 933 947 1009 994 1075 1049 1096 1184 1164 1161 1336 1357 1366 1271 1223 1244 1257 1418 1499 1481 1498 1459 1545 1585 1640 1716 1889 2064 2126 2162 2165 2294 2606 2535 2566 2481 2536 2566 2629 2544 2450 2342 2260 2027 1969 2042 1843 1757 1698 1665 1690 1714 1739 1604 1583
 582 616 647 549 672 730 952 1003 1132 1007 825 911 906 677 893 825 992 769 781 658 642 689 655 618 751 807 1052 1152 994 1068 1090 1213 1307 1461 1449 1351 1401 1416 1274 1291 1427 1421 1152 1146 1288 1372 1427 1505 1444 1421 1257 1094 932 1043 1082 1109 1170 1129 1095 1048 1042 997 930 963 907 911 922 951 980 1083 1113 1088 1186 1248 1252 1244 1335 1275 1337 1425 1400 1348 1401 1455 1373 1382 1449 1503 1543 1586 1637 1693 1759 1826 1898 1993 2105 2288 2441 2522 2595 2570 2567 2624 2576 2535 2455 2366 2179 2161 1941 1881 1899 1798 1740 1682 1660 1631 1600 1632 1680
 429 426 469 677 827 814 843 908 875 1047 1198 1223 1014 890 857 939 918 847 768 683 740 1010 934 688 692 908 847 929 1121 1167 1266 1381 1322 1289 1276 1389 1443 1502 1536 1499 1390 1308 1214 1321 1211 1292 1249 1336 1351 1318 1224 968 1148 1218 1349 1381 1283 1396 1212 1127 1049 1005 987 982 1021 919 928 944 979 1004 1057 1144 1118 1147 1159 1233 1203 1309 1370 1321 1327 1289 1412 1394 1370 1373 1391 1444 1529 1583 1634 1690 1744 1804 1860 1884 1945 2118 2179 2232 2384 2374 2365 2319 2367 2339 2373 2092 2119 1962 1942 1857 1871 1772 1726 1683 1643 1623 1624 1668 1718
 574 689 516 549 648 725 792 696 929 978 879 879 838 914 1065 1080 904 882 766 870 922 1068 1059 914 690 925 866 845 932 1167 1433 1335 1268 1218 1353 1368 1443 1561 1648 1612 1573 1464 1367 1330 1277 1431 1367 1219 1190 1188 1228 1068 1039 1204 1305 1325 1423 1308 1400 1253 1206 1116 1016 1048 956 999 933 951 971 995 1022 1052 1078 1092 1155 1156 1238 1303 1318 1302 1265 1285 1273 1298 1327 1374 1374 1376 1445 1500 1607 1658 1711 1769 1792 1811 1902 1961 2100 2148 2246 2257 2179 2093 2151 2137 2157 2176 1966 1872 1821 1841 1918 1848 1749 1689 1680 1686 1686 1747 1812
 948 879 731 591 526 654 698 833 793 728 938 897 774 846 855 1037 1092 1007 884 943 872 976 903 862 802 689 877 989 978 1029 1275 1146 1267 1320 1387 1305 1439 1571 1525 1485 1523 1610 1562 1510 1440 1475 1320 1270 1259 1170 1060 1073 1076 1039 1122 1365 1406 1405 1491 1425 1463 1329 1217 1183 1076 1087 966 945 967 990 1107 1058 1128 1158 1237 1295 1296 1205 1245 1228 1228 1261 1337 1418 1435 1476 1508 1504 1426 1449 1496 1535 1583 1622 1741 1807 1786 2016 2118 2135 2146 2114 2249 2031 2091 2143 1945 1978 1866 1840 1826 1745 1733 1720 1687 1667 1764 1812 1843 1861 1954
 1014 853 774 665 718 750 534 665 745 683 816 702 911 979 940 1049 1137 1153 1077 1139 1174 1028 885 800 848 764 761 883 988 985 1020 1056 1244 1327 1231 1448 1519 1480 1406 1385 1500 1549 1527 1605 1536 1506 1336 1283 1131 1082 1102 1029 1184 1121 1115 1184 1187 1241 1314 1383 1271 1196 1306 1251 1150 1060 1099 987 958 978 1048 1231 1178 1200 1196 1165 1145 1187 1202 1188 1292 1334 1330 1379 1367 1459 1499 1556 1572 1557 1559 1597 1503 1510 1588 1639 1658 1782 1937 2078 2141 1932 1915 1979 1875 1899 1867 1866 1887 1776 1753 1700 1665 1652 1623 1642 1677 1822 1852 1927 2054
 1139 1009 900 951 793 748 638 787 593 593 626 650 819 937 947 969 964 972 982 1109 1137 1177 1113 1064 974 914 745 763 867 946 1106 1219 1117 1133 1379 1288 1448 1376 1292 1398 1521 1543 1406 1515 1604 1520 1415 1468 1175 1407 1293 1117 1200 1308 1383 1202 1195 1369 1497 1514 1520 1292 1402 1361 1241 1212 1111 1020 979 969 1027 1199 1312 1178 1132 1109 1152 1168 1192 1330 1335 1429 1480 1453 1475 1473 1472 1502 1574 1491 1524 1430 1443 1498 1587 1577 1707 1766 1902 1979 1906 1911 1815 1907 1940 1810 1853 1804 1715 1664 1629 1602 1595 1589 1603 1597 1652 1734 1823 1938 2154
 1074 1169 1107 981 810 663 721 825 973 824 734 685 692 757 963 1014 1114 1025 1061 1136 1063 1089 1091 990 967 988 937 794 873 1006 1052 1011 1132 1193 1161 1276 1207 1228 1356 1388 1420 1528 1337 1562 1688 1672 1621 1469 1308 1448 1344 1157 1154 1307 1344 1322 1334 1318 1324 1355 1531 1591 1707 1500 1445 1245 1159 1092 1029 1008 996 1163 1225 1187 1093 1128 1258 1249 1294 1281 1331 1351 1460 1440 1435 1455 1466 1510 1523 1464 1506 1419 1422 1485 1528 1619 1690 1799 1925 1916 1830 1833 1747 1872 1845 1766 1671 1675 1665 1642 1593 1572 1558 1550 1563 1581 1603 1684 1834 1977 2179
 787 1016 1261 917 807 922 837 811 804 906 824 686 910 691 929 1258 1238 1242 1190 1242 1188 1112 1105 1080 1022 983 987 929 931 987 979 1033 884 903 1003 1052 1020 1183 1466 1437 1363 1367 1300 1345 1408 1480 1578 1469 1438 1374 1324 1288 1100 1277 1551 1408 1461 1534 1523 1489 1442 1471 1572 1602 1530 1326 1349 1273 1047 1031 990 1010 1043 1044 1076 1188 1208 1327 1282 1212 1251 1383 1406 1379 1403 1442 1422 1439 1460 1386 1446 1386 1444 1591 1719 1721 1784 1777 1625 1695 1920 1855 1728 1690 1668 1651 1638 1624 1642 1621 1628 1565 1538 1535 1563 1576 1598 1653 1881 2000 2097
 984 1220 1338 1211 1004 1146 909 983 1031 934 957 990 844 868 889 1067 1096 1010 1263 1338 1373 1302 1256 1247 1174 1163 1115 1142 1233 1077 1162 1264 1163 1261 1057 1102 1195 1123 1199 1211 1535 1609 1704 1526 1436 1458 1571 1439 1529 1540 1385 1351 1145 1189 1403 1502 1573 1688 1607 1550 1569 1468 1389 1351 1349 1323 1278 1290 1179 1316 1064 1002 1166 1283 1297 1184 1127 1162 1172 1239 1204 1265 1350 1316 1347 1354 1415 1398 1436 1438 1338 1404 1474 1600 1748 1741 1675 1693 1654 1666 1626 1666 1721 1728 1673 1635 1612 1605 1585 1562 1552 1535 1524 1508 1536 1515 1558 1682 1793 1928 1883
 1031 1029 1080 1216 1061 1253 1117 1132 985 986 1004 1184 1171 1050 855 889 1218 1253 1121 1287 1671 1627 1658 1487 1520 1420 1274 1453 1489 1354 1340 1446 1332 1395 1247 1233 1381 1292 1142 1118 1287 1477 1616 1770 1616 1526 1520 1397 1366 1388 1228 1207 1237 1268 1300 1346 1539 1583 1622 1724 1649 1553 1502 1547 1528 1568 1513 1324 1226 1275 1218 1050 1014 1090 1080 1091 1100 1121 1172 1164 1207 1227 1255 1279 1340 1372 1424 1360 1404 1325 1325 1386 1482 1528 1631 1737 1740 1555 1563 1538 1603 1584 1599 1671 1697 1635 1606 1585 1568 1551 1543 1563 1537 1514 1486 1470 1557 1717 1781 1768 1679
 772 861 979 1087 1208 1186 1364 1279 1149 1102 971 1142 1356 1104 974 1152 1256 1524 1346 1358 1466 1763 1901 1853 1798 1555 1540 1532 1709 1659 1548 1590 1526 1585 1448 1282 1545 1453 1386 1232 1306 1275 1490 1553 1807 1643 1483 1467 1378 1369 1352 1268 1303 1298 1327 1355 1519 1583 1532 1621 1600 1645 1652 1629 1621 1646 1551 1421 1324 1342 1333 1127 1086 1025 1055 1077 1116 1126 1154 1184 1264 1270 1250 1250 1265 1317 1310 1348 1355 1285 1345 1385 1448 1458 1557 1529 1543 1503 1481 1500 1568 1578 1588 1682 1749 1690 1626 1583 1573 1567 1662 1590 1617 1641 1646 1609 1489 1582 1579 1578 1812
 676 828 1043 1103 1112 1185 1267 1084 1117 1111 843 920 1198 1334 1105 1278 1316 1582 1540 1412 1452 1564 1779 1929 1809 1675 1754 1582 1620 1801 1729 1692 1681 1724 1629 1458 1570 1699 1601 1486 1370 1589 1439 1450 1640 1872 1591 1503 1470 1437 1338 1325 1436 1429 1428 1488 1635 1590 1518 1659 1555 1653 1526 1587 1542 1506 1504 1522 1484 1163 1121 1124 1179 1039 1032 1072 1141 1126 1158 1172 1241 1208 1201 1222 1226 1287 1315 1300 1252 1279 1312 1405 1528 1471 1543 1490 1408 1518 1624 1573 1558 1672 1736 1685 1668 1641 1608 1623 1633 1616 1697 1682 1746 1681 1724 1689 1677 1474 1415 1497 1724
 719 876 789 843 969 1052 1109 1139 1035 781 762 844 1088 1048 1258 1324 1479 1668 1725 1665 1629 1926 1933 1883 1838 1782 1759 1675 1664 1745 1644 1632 1686 1702 1582 1665 1676 1837 1767 1758 1592 1701 1734 1582 1670 1802 1881 1638 1609 1577 1493 1499 1424 1309 1300 1375 1452 1544 1527 1625 1614 1633 1467 1424 1413 1575 1603 1502 1300 1463 1251 1168 1075 1124 1056 1056 1086 1122 1131 1183 1194 1160 1169 1185 1243 1254 1241 1224 1280 1385 1308 1297 1302 1323 1363 1374 1398 1490 1470 1532 1533 1594 1709 1858 1739 1695 1689 1721 1687 1612 1744 1838 1888 1799 1745 1629 1551 1613 1594 1392 1424
 614 601 597 823 954 868 951 1010 1074 952 684 782 789 1028 1223 1303 1229 1291 1724 1750 1586 1761 1709 1629 1632 1606 1562 1589 1543 1607 1647 1568 1498 1508 1376 1350 1441 1578 1914 1847 1755 1875 1981 1835 1785 1669 1728 1722 1893 1695 1570 1464 1382 1317 1264 1304 1421 1345 1481 1407 1431 1461 1615 1451 1309 1377 1437 1328 1365 1436 1342 1329 1135 1098 1079 1054 1159 1193 1118 1147 1113 1124 1135 1146 1167 1223 1197 1255 1266 1299 1250 1306 1332 1405 1423 1485 1528 1453 1487 1543 1579 1689 1821 1972 1830 1802 1742 1740 1728 1667 1740 1701 1692 1696 1663 1633 1643 1651 1544 1382 1309
 420 396 534 653 715 692 712 757 860 896 848 638 800 978 971 956 1235 1480 1371 1499 1329 1507 1663 1501 1403 1353 1279 1377 1403 1333 1357 1438 1175 1276 1207 1212 1396 1423 1539 1768 1973 1934 1823 1827 1905 1757 1587 1450 1503 1976 1646 1536 1478 1436 1313 1195 1242 1272 1351 1399 1506 1402 1385 1420 1446 1255 1216 1237 1297 1162 1183 1193 1228 1292 1155 1078 1066 1098 1091 1099 1109 1150 1142 1145 1153 1166 1198 1205 1252 1244 1238 1286 1407 1468 1463 1522 1521 1615 1499 1558 1585 1798 1872 1857 1780 1750 1721 1703 1715 1732 1683 1677 1617 1611 1651 1660 1669 1645 1424 1383 1460
 365 431 503 628 526 559 545 566 630 721 712 618 651 797 840 977 997 1043 1260 1100 1071 1234 1533 1302 1146 1089 1081 1133 1179 1105 1137 1205 1047 1086 1105 1136 1272 1314 1485 1513 1539 1784 1736 1655 1844 1742 1644 1484 1329 1512 1467 1689 1671 1444 1415 1431 1265 1166 1158 1315 1244 1414 1429 1370 1300 1311 1352 1363 1248 1290 1262 1347 1362 1428 1287 1146 1225 1111 1120 1164 1128 1151 1183 1226 1231 1231 1265 1298 1307 1264 1337 1298 1295 1318 1337 1347 1390 1415 1483 1611 1705 1754 1762 1799 1855 1736 1739 1780 1802 1713 1629 1653 1686 1676 1555 1600 1462 1363 1406 1598 1746
 404 425 472 554 436 459 426 473 507 608 577 492 638 807 733 790 949 974 1000 885 1232 1273 1318 1571 1514 1275 1040 888 933 939 950 943 1073 1003 1044 1189 1241 1165 1189 1274 1380 1435 1358 1543 1599 1557 1466 1357 1296 1233 1319 1488 1469 1336 1364 1302 1256 1082 1104 1143 1260 1189 1273 1432 1482 1375 1410 1313 1333 1309 1236 1407 1445 1271 1281 1240 1292 1135 1174 1214 1179 1178 1232 1270 1324 1370 1421 1409 1500 1441 1545 1549 1420 1440 1320 1402 1410 1493 1498 1555 1765 1625 1602 1629 1650 1613 1641 1663 1681 1616 1612 1556 1595 1515 1455 1432 1403 1523 1381 1575 1610
 429 378 382 481 505 379 433 370 492 638 428 481 643 695 664 787 923 814 934 830 1079 1357 1466 1474 1300 1362 1306 981 797 888 1071 1068 1111 1052 1016 1145 1151 1208 1212 1484 1525 1399 1231 1356 1317 1397 1297 1189 1261 1109 1211 1496 1362 1290 1347 1224 1166 1152 1090 1086 1185 1121 1114 1242 1250 1347 1251 1361 1404 1283 1269 1314 1346 1362 1277 1327 1323 1272 1359 1281 1324 1432 1320 1337 1391 1450 1460 1675 1657 1594 1615 1567 1511 1463 1584 1414 1392 1427 1528 1600 1681 1599 1555 1575 1571 1585 1628 1584 1642 1580 1635 1560 1662 1530 1401 1466 1480 1576 1417 1462 1639
 365 340 433 410 468 357 357 389 445 484 370 531 596 559 640 681 761 747 720 753 938 1046 1279 1299 1090 1014 1091 1111 872 741 937 963 1099 1097 961 1107 1126 1254 1265 1437 1321 1328 1386 1143 1167 1155 1169 1151 1069 1055 1164 1336 1335 1169 1307 1314 1348 1259 1255 1126 1060 1102 1078 1144 1142 1161 1208 1326 1431 1469 1292 1360 1363 1523 1409 1498 1502 1521 1434 1417 1606 1568 1477 1452 1463 1494 1518 1613 1862 1866 1857 1846 1721 1720 1590 1692 1568 1762 1632 1594 1583 1594 1547 1525 1515 1531 1567 1551 1618 1547 1522 1581 1519 1426 1621 1734 1692 1424 1508 1664 1550
 347 330 460 351 365 346 334 417 512 398 375 424 477 520 511 513 674 668 597 644 847 992 1058 964 1035 1034 874 895 936 771 901 821 897 1104 1280 1411 1409 1465 1418 1288 1192 1071 1102 1115 1104 1108 1200 1188 1044 988 1074 1247 1087 1056 1119 1256 1170 1253 1179 1074 1213 1281 1269 1241 1162 1317 1251 1370 1304 1512 1371 1375 1450 1603 1575 1524 1621 1723 1645 1652 1680 1722 1885 1704 1777 1739 1587 1569 1581 1759 1825 2016 1998 1703 1778 1913 1777 1738 1724 1745 1580 1632 1636 1575 1629 1563 1514 1518 1537 1506 1564 1514 1434 1519 1713 1698 1509 1554 1603 1778 1855
 340 401 401 344 306 343 440 479 431 332 470 514 565 624 577 452 592 507 489 610 654 782 837 898 923 924 1039 712 764 895 682 985 1018 1135 1362 1430 1244 1209 1264 1354 1224 1125 1044 1031 1138 1136 1293 1239 1081 1013 1122 1115 1333 1150 968 1005 1226 1307 1100 996 1266 1227 1265 1295 1339 1276 1366 1460 1414 1524 1558 1503 1483 1587 1548 1434 1476 1632 1742 1919 1986 1975 2071 2078 1835 2042 1895 1772 1875 1739 1758 1810 2027 2016 1976 2059 1936 1805 1851 1701 1637 1645 1634 1639 1534 1532 1539 1513 1496 1455 1481 1468 1519 1490 1505 1485 1521 1772 1666 1538 1710
 267 312 333 280 312 439 404 409 441 324 385 453 596 535 452 420 493 402 383 419 478 542 542 689 948 836 772 652 622 619 710 872 1118 1347 1421 1352 1185 1047 1221 1258 1166 1024 1179 1279 1198 1171 1239 1030 947 951 987 1139 1097 1213 973 1164 1166 1150 1080 1056 1044 1074 1190 1153 1239 1384 1455 1560 1503 1490 1462 1563 1511 1489 1528 1446 1486 1495 1609 1677 1828 1874 2030 2042 2077 2084 2230 2160 2138 1988 1968 1923 1929 1915 1956 2004 1918 1776 1724 1712 1853 1748 1761 1618 1538 1549 1525 1513 1513 1488 1486 1588 1600 1483 1467 1481 1540 1686 1835 1677 1688
 245 245 247 317 386 382 453 462 359 301 369 408 440 438 422 384 322 419 541 598 589 543 518 531 612 610 680 621 844 1021 979 1001 996 1195 1257 1203 1054 941 1120 936 805 1063 1215 1252 1300 1160 1011 1147 1063 907 945 826 1036 979 1027 954 909 950 957 1056 1150 1117 1222 1386 1371 1481 1511 1655 1538 1514 1399 1370 1465 1382 1466 1385 1399 1565 1465 1542 1588 1639 1709 1746 1806 1823 2080 1916 1745 1738 2127 2238 2053 1961 1892 1845 1893 1930 1944 1999 1970 1857 1654 1616 1580 1603 1563 1616 1526 1565 1541 1580 1534 1513 1475 1490 1489 1498 1755 1942 1927
 218 236 261 273 290 320 343 390 335 373 414 380 410 393 330 301 422 587 473 567 642 757 725 708 701 862 780 847 804 943 932 1188 1283 1281 1167 978 997 787 975 830 873 1037 1123 1066 1073 1036 967 878 928 828 954 785 826 886 920 970 1063 1128 1240 1331 1335 1234 1197 1257 1505 1550 1526 1504 1524 1477 1534 1451 1340 1402 1439 1339 1315 1471 1368 1432 1448 1465 1493 1473 1587 1596 1704 1664 1603 1803 1855 1894 1811 1808 1898 2048 1907 1826 1817 1856 1897 1939 1992 1823 1657 1706 1652 1600 1581 1599 1586 1586 1501 1527 1502 1519 1384 1352 1582 1469 1713
 251 243 252 261 288 278 272 294 256 344 451 374 312 286 382 430 558 471 402 402 518 692 632 707 869 959 1150 1067 868 916 1106 1136 1171 1205 1227 985 856 803 855 741 776 916 985 814 886 850 823 951 696 856 927 1075 1137 1134 1218 1067 1204 1346 1301 1305 1534 1524 1459 1526 1566 1519 1561 1500 1553 1479 1422 1400 1349 1357 1314 1349 1273 1367 1314 1305 1398 1355 1361 1397 1438 1476 1499 1449 1420 1486 1508 1515 1550 1439 1547 1786 1697 1966 1745 1920 1617 1607 1700 1856 2063 2030 1779 1667 1606 1615 1584 1571 1579 1605 1570 1377 1441 1222 1220 1395 1277
 282 319 316 316 273 235 288 246 306 309 353 271 288 352 383 393 441 419 436 546 588 522 510 657 762 769 874 969 1079 1128 1304 1322 1220 937 1053 923 780 837 800 931 647 946 1091 748 918 826 747 631 731 874 1126 1222 1401 1332 1497 1367 1282 1217 1283 1246 1419 1376 1384 1402 1471 1595 1601 1597 1620 1531 1486 1487 1375 1346 1346 1288 1300 1313 1250 1252 1262 1287 1347 1297 1275 1276 1329 1281 1288 1260 1258 1385 1346 1387 1357 1457 1601 1667 1690 1539 1567 1474 1373 1672 1918 1836 1718 1744 1817 1636 1514 1707 1685 1760 1693 1346 1152 1195 1126 1002 1016
 175 195 270 234 230 230 230 257 325 325 252 268 387 360 353 397 399 359 440 576 707 526 493 515 559 552 622 837 922 886 948 1069 1173 1171 1025 785 742 799 706 825 648 847 909 780 889 1053 689 626 735 835 967 1124 1121 1088 1196 1115 1063 1199 1086 1169 1383 1349 1502 1383 1454 1511 1478 1474 1554 1591 1588 1558 1499 1522 1498 1503 1416 1365 1422 1496 1299 1351 1305 1266 1186 1203 1229 1313 1210 1181 1222 1273 1231 1286 1286 1299 1317 1442 1371 1325 1234 1189 1504 1583 1532 1702 1323 1466 1770 1592 1362 1450 1368 1429 1573 1667 1461 1285 1129 1002 846
 234 222 204 230 230 239 230 230 287 238 241 378 357 324 308 370 351 349 392 554 706 640 412 454 411 431 501 674 771 666 770 740 850 875 985 901 847 706 814 656 610 691 916 689 749 714 580 644 729 843 855 907 999 1010 948 1004 1124 1222 1287 1263 1299 1371 1514 1645 1562 1657 1618 1536 1326 1444 1479 1556 1517 1602 1706 1546 1691 1561 1450 1654 1461 1549 1493 1506 1462 1296 1259 1147 1111 1133 1231 1192 1198 1177 1211 1191 1218 1248 1190 1179 1061 1126 1177 1342 1210 1388 1385 1296 1377 1296 1211 1468 1273 1193 1370 1333 1080 1188 1197 1214 996
 299 319 280 279 270 249 230 230 262 253 295 262 265 270 279 285 353 316 375 451 583 621 528 360 471 646 664 709 656 547 559 643 788 893 733 814 849 872 894 663 668 802 787 690 588 614 540 703 620 670 678 771 1003 858 745 993 1172 1060 1252 1355 1517 1393 1579 1686 1716 1601 1449 1389 1405 1305 1495 1435 1306 1338 1483 1629 1578 1522 1479 1529 1481 1516 1618 1682 1619 1462 1380 1226 1195 1093 1249 1105 1188 1132 1100 1119 1110 1147 1113 1058 1024 1040 1095 1052 1095 1154 1204 1260 1015 1171 1114 1187 1028 895 858 806 891 901 790 724 761
 413 402 368 354 303 319 259 286 230 230 230 230 230 263 292 351 344 377 345 369 489 500 339 479 514 456 516 610 473 475 665 800 829 754 695 685 754 659 752 750 648 620 731 860 721 639 527 675 737 862 948 923 870 918 805 905 991 1163 1223 1138 1175 1299 1429 1593 1708 1717 1706 1715 1591 1383 1217 1222 1365 1580 1686 1569 1312 1351 1471 1732 1750 1655 1539 1499 1310 1160 1074 1115 1089 1161 1158 1041 1089 1082 1076 1048 1026 1054 1032 1059 974 974 1007 1006 993 1031 992 991 956 1055 1015 940 943 801 787 926 830 795 884 940 843
 397 475 437 480 447 355 374 356 311 285 272 256 230 254 251 294 326 319 331 350 313 351 322 440 582 562 449 394 566 623 648 802 703 639 763 818 620 627 718 676 612 585 598 624 773 577 510 550 667 746 882 820 788 679 745 941 849 954 1017 1057 1235 1352 1415 1570 1473 1481 1410 1505 1399 1542 1344 1284 1089 1406 1490 1466 1295 1161 1389 1574 1410 1321 1303 1202 1137 1264 1208 1155 1043 1029 1017 1022 1023 988 1105 1016 955 946 962 968 967 951 914 898 895 888 873 878 947 940 920 861 839 920 936 1056 986 1122 1157 1028 1072
 570 639 542 621 547 421 446 400 329 370 343 278 259 229 260 239 302 275 279 265 276 291 345 375 452 400 431 443 377 519 755 700 585 513 647 822 838 791 645 495 534 567 550 501 546 551 664 677 755 750 736 839 749 705 685 716 770 827 915 980 1213 1332 1447 1730 1547 1557 1420 1172 1160 1241 1437 1026 1103 1278 1441 1422 1297 1036 1095 1326 1458 1432 1349 1240 1281 1407 1328 1281 1338 1272 1241 1138 1017 1191 1107 1018 1024 1021 1019 1079 971 1098 1098 1279 1151 1096 1141 1073 1114 1101 1061 996 1017 1221 1058 1271 1167 1243 1295 1204 1204
 703 767 802 846 745 532 552 499 497 468 446 426 316 375 309 334 290 287 279 352 427 336 327 288 309 373 341 366 310 328 380 333 442 425 432 427 477 799 676 676 489 560 521 475 533 463 551 606 603 710 715 646 623 716 873 934 834 1059 1172 1163 1176 1425 1589 1760 1774 1590 1421 1453 1219 1124 927 884 1027 1122 1122 1304 1213 950 1097 1310 1259 1289 1344 1408 1447 1454 1431 1393 1369 1283 1210 1130 1154 1146 1022 1119 1112 1047 1024 1202 1091 1127 1303 1401 1420 1208 1318 1112 1243 1269 1302 1107 1111 1156 1186 1289 1354 1440 1826 1772 1635
 1038 1093 1119 1008 759 908 837 846 745 638 644 561 481 543 383 533 411 368 382 394 332 533 511 394 612 576 507 461 404 395 425 456 412 348 485 451 502 632 482 563 440 662 668 522 454 503 621 615 604 714 717 638 550 749 823 990 1175 1200 1231 1241 1457 1437 1511 1623 1591 1665 1664 1534 1434 1261 1063 863 773 974 1047 986 1021 943 942 1075 1042 1007 1163 1325 1296 1281 1021 1012 984 813 915 1072 1073 1071 1054 1088 1200 1212 1061 1076 1073 1034 1092 1226 1334 1376 1290 1119 1266 1357 1302 1526 1481 1255 1443 1577 1885 1767 1791 1536 1616
 941 909 1124 1189 1136 1201 1005 965 994 932 899 813 735 591 571 564 427 449 592 637 515 410 651 643 700 791 763 710 646 506 571 513 498 433 452 464 485 395 444 449 430 468 446 565 535 494 693 671 641 666 638 616 536 707 863 1061 1091 1129 1080 1220 1116 1178 1412 1462 1378 1552 1436 1218 1172 1145 910 749 688 1022 959 811 840 878 754 1001 860 1059 1208 1166 1122 1062 890 799 708 840 800 863 1064 1212 1130 1131 1273 1311 1322 1372 1253 1198 1112 1228 1343 1451 1594 1480 1297 1588 1675 1591 1408 1595 1626 1748 1464 1570 1483 1332 1441
 748 655 920 907 782 835 654 717 751 836 861 720 786 788 744 630 589 664 770 714 669 595 634 789 799 868 946 810 882 659 791 711 653 640 668 618 555 604 566 579 469 786 661 507 450 588 564 559 522 503 550 536 615 682 860 945 961 1125 945 1007 869 936 1082 1243 1405 1541 1554 1337 1059 888 753 620 630 676 599 574 585 771 935 930 949 1122 1049 886 844 848 721 653 671 768 998 983 1074 1365 1283 1432 1471 1474 1489 1547 1434 1285 1168 1323 1280 1452 1551 1681 1481 1650 1813 1677 1674 1732 1484 1436 1261 1235 1339 1195 1150
 527 570 681 716 591 585 470 439 611 776 732 688 691 733 691 760 860 923 882 805 759 655 685 636 743 814 857 994 1058 918 978 1033 984 739 816 758 820 711 576 635 610 683 744 761 539 504 498 457 569 674 568 523 622 805 806 732 854 815 758 798 826 952 1044 1201 1246 1270 1293 1414 1220 1129 1086 963 821 538 489 643 640 681 704 780 671 919 974 735 527 461 509 563 838 925 837 956 1171 1133 1172 1035 1041 1015 1189 1383 1576 1322 1321 1551 1470 1441 1547 1849 1810 1810 1710 1859 1634 1598 1416 1313 1374 1287 1167 1136 1158
 343 361 539 557 470 414 353 400 570 672 564 391 611 517 597 863 841 874 832 784 734 685 626 582 522 726 652 754 759 807 861 849 1047 1120 1125 878 938 1030 874 718 855 714 720 736 724 759 615 563 561 639 690 708 563 610 580 722 680 712 738 791 701 774 859 904 1041 1022 1151 1249 1286 1232 930 721 657 553 665 589 541 530 451 418 525 564 647 650 411 559 799 864 898 991 1144 1261 1169 916 987 1010 880 797 1050 1334 1321 1453 1522 1668 1560 1563 1650 1836 1824 1638 1535 1507 1455 1405 1382 1494 1377 1292 1248 1374 1321
 371 254 372 309 325 346 274 376 344 394 471 264 563 437 580 640 618 641 601 555 514 522 521 488 378 522 399 558 580 681 694 783 960 754 984 1011 1013 1046 1114 1070 1017 987 1077 969 798 630 606 537 548 537 606 614 746 571 546 662 696 765 595 663 716 736 730 754 789 852 930 1028 1081 989 811 824 744 901 914 782 795 743 752 638 488 350 342 437 636 786 897 935 915 942 1065 1129 1109 816 778 867 622 705 925 1194 994 1178 1334 1523 1396 1327 1432 1572 1863 1822 1722 1557 1455 1309 1359 1447 1459 1354 1451 1417 1294
 177 152 180 298 163 230 196 297 180 268 246 244 310 316 343 361 383 306 359 338 359 264 234 226 215 291 333 319 368 398 479 662 616 664 888 669 744 959 920 949 834 846 921 1042 1061 1036 963 895 823 736 764 782 646 719 719 659 665 648 656 726 769 750 817 943 1027 1122 1087 1189 1165 1039 1090 1184 989 1240 1095 1047 1027 1109 948 747 725 585 550 379 337 330 568 662 716 929 920 1046 915 941 657 798 652 702 798 948 844 960 1251 1323 1326 1086 1187 1337 1699 1663 1513 1442 1330 1090 1210 1255 1486 1542 1446 1317 1277
 192 87 161 199 168 198 184 232 129 182 162 217 210 157 124 139 202 141 194 103 208 153 189 147 229 109 214 165 254 248 264 347 426 401 569 498 623 643 684 831 838 697 702 787 724 663 771 900 1036 818 936 896 740 886 979 1048 992 888 1047 1109 893 903 1025 1088 1269 1196 1323 1255 1367 1192 1153 1221 1365 1263 1176 1165 1090 949 777 1017 838 823 854 583 374 249 416 461 489 607 554 588 563 499 468 443 413 506 615 719 737 960 988 1126 1068 932 1054 1165 1444 1456 1395 1288 1209 926 1062 1145 1298 1440 1482 1355 1278
 79 72 177 159 113 139 107 157 134 108 89 117 123 93 86 73 106 80 110 114 98 111 117 90 127 138 101 173 215 225 246 199 263 264 320 313 458 479 523 580 580 415 458 721 777 561 723 786 898 529 818 973 943 950 1059 1048 1092 1061 1005 1139 1105 1104 1057 1188 883 884 1095 1150 997 1102 884 917 1162 1318 1043 856 820 891 659 682 592 620 520 425 426 242 289 326 326 383 421 384 334 324 332 342 333 355 430 485 671 729 803 963 853 806 997 1007 1257 1096 1152 1134 962 868 915 1081 1253 1488 1444 1360 1400
 27 49 71 73 71 57 119 171 130 110 62 139 155 90 110 71 92 66 64 84 45 61 46 49 94 99 116 121 145 120 137 149 228 175 267 253 286 297 304 268 361 406 377 432 429 321 475 408 500 375 525 531 608 580 680 765 777 720 777 785 762 817 784 887 896 825 932 802 893 874 764 761 754 831 1005 891 684 573 471 502 431 375 320 297 255 220 242 261 299 312 283 253 253 261 262 276 295 340 386 391 483 637 625 710 716 884 852 954 980 1017 719 982 875 710 814 929 1160 1189 1255 1520 1455
 0 0 6 28 41 30 50 106 94 89 45 88 107 122 119 43 97 34 41 28 22 25 30 33 37 52 94 81 73 69 88 94 118 152 192 168 247 255 181 161 191 207 185 209 202 202 226 283 259 244 326 339 385 403 485 579 545 565 627 679 525 617 668 591 562 614 732 592 770 821 770 621 585 655 724 660 621 578 418 326 356 318 354 305 260 210 233 233 252 266 243 235 236 240 250 264 280 297 319 350 403 465 598 585 590 624 660 725 732 741 719 694 674 533 704 884 895 937 1101 1363 1372
 0 0 0 0 0 32 39 54 57 72 26 57 32 52 40 33 33 32 17 16 10 13 20 27 35 34 24 39 43 57 66 68 76 77 103 157 211 230 234 71 142 154 126 121 88 102 118 128 116 146 204 239 259 291 324 343 343 351 390 481 417 451 407 472 495 576 621 452 655 784 781 523 503 532 548 543 577 489 451 341 297 288 233 230 198 207 239 228 231 244 233 228 219 239 252 317 307 404 401 424 443 470 465 476 490 494 579 607 581 543 378 382 578 754 964 910 936 1071 1233 1423 1185
 0 0 0 0 0 0 0 0 0 0 10 19 40 39 19 23 14 12 5 7 6 9 13 14 18 15 16 29 65 49 63 54 72 56 70 65 58 51 51 79 118 143 97 66 49 71 79 67 78 153 165 140 181 271 220 315 266 351 526 429 412 388 449 370 359 460 406 417 502 603 718 518 353 496 522 547 475 340 263 237 241 215 192 193 177 191 199 207 213 202 199 228 399 451 490 477 376 382 392 400 414 421 441 481 483 435 425 509 446 342 369 646 738 874 962 1277 1269 1300 1163 1019 1233
 0 0 0 0 0 0 0 0 0 0 0 0 27 25 10 10 14 4 3 1 1 6 6 10 18 23 56 87 58 94 39 55 45 38 33 36 26 9 11 16 19 34 42 45 26 21 46 52 64 88 59 61 116 89 139 192 178 183 326 259 300 302 332 263 427 428 439 455 523 522 551 455 390 289 353 292 251 219 213 204 214 222 221 186 162 197 240 247 222 201 229 266 288 357 404 363 496 459 498 539 518 548 545 564 626 667 604 488 429 456 337 426 564 693 845 901 935 823 802 878 870
 0 0 0 0 0 0 0 0 0 0 0 0 0 0 22 2 11 15 19 10 5 0 0 12 0 0 36 34 79 144 165 24 104 38 24 20 16 5 5 0 0 0 0 8 0 0 0 0 0 0 29 22 16 9 18 32 38 51 54 48 83 188 232 146 202 362 304 430 427 664 569 473 404 331 298 222 194 209 254 192 211 233 239 171 149 205 257 202 169 213 278 320 442 430 358 512 679 691 691 603 660 749 708 776 770 696 635 555 409 313 256 348 509 446 505 691 740 715 615 581 590
 0 0 0 0 0 0 0 0 0 0 0 0 0 0 0 0 0 0 8 0 0 0 0 0 0 0 0 0 0 49 60 24 111 111 99 101 9 2 0 0 0 0 0 0 0 0 0 0 0 0 0 0 0 0 7 5 12 15 13 18 29 60 106 129 129 206 300 296 450 548 470 483 446 417 350 216 174 169 183 172 175 192 183 137 151 253 185 209 361 379 534 665 635 609 647 777 715 776 711 758 687 750 671 589 455 371 373 354 339 375 236 318 443 334 501 616 546 592 571 506 432
 0 0 0 0 0 0 0 0 0 0 0 0 0 0 0 0 0 0 0 0 0 0 0 0 0 0 0 0 0 0 0 0 52 53 60 32 0 0 0 0 0 0 0 0 0 0 0 0 0 0 0 0 0 0 0 0 0 4 10 21 30 42 55 123 200 166 94 307 301 409 385 441 422 441 475 435 352 213 203 169 169 188 144 124 164 187 134 283 374 521 515 555 580 511 472 453 488 485 439 405 405 412 425 341 420 408 281 306 291 381 274 226 302 381 480 405 422 365 420 402 287
 0 0 0 0 0 0 0 0 0 0 0 0 0 0 0 0 0 0 0 0 0 0 0 0 0 0 0 0 0 0 0 0 0 0 0 0 0 0 0 0 0 0 0 0 0 0 0 0 0 0 0 0 0 0 0 0 0 0 16 18 30 60 66 41 100 73 139 133 159 211 307 296 343 358 418 270 225 212 169 238 169 251 164 117 161 148 284 400 406 341 366 370 399 308 369 437 379 456 387 317 419 298 344 326 288 387 289 274 247 329 205 207 193 270 367 287 339 267 285 300 253
 0 0 0 0 0 0 0 0 0 0 0 0 0 0 0 0 0 0 0 0 0 0 0 0 0 0 0 0 0 0 0 0 0 0 0 0 0 0 0 0 0 0 0 0 0 0 0 0 0 0 0 0 0 0 0 0 0 0 0 0 0 0 58 57 60 216 246 386 406 330 365 217 224 267 310 274 169 169 169 169 169 203 210 104 114 253 322 374 370 254 329 315 313 277 432 360 324 361 356 319 268 379 283 237 287 283 257 220 220 245 200 232 159 226 322 237 280 248 200 202 183
 0 0 0 0 0 0 0 0 0 0 0 0 0 0 0 0 0 0 0 0 0 0 0 0 0 0 0 0 0 0 0 0 0 0 0 0 0 0 0 0 0 0 0 0 0 0 0 0 0 0 0 0 0 0 0 0 0 0 0 0 0 0 0 7 0 90 204 276 384 556 478 204 426 406 360 364 252 187 210 169 181 225 175 90 222 247 330 320 259 321 200 273 213 288 326 360 291 305 286 305 255 300 217 336 225 278 279 168 275 198 143 193 153 137 175 184 114 126 129 126 117
 0 0 0 0 0 0 0 0 0 0 0 0 0 0 0 0 0 0 0 0 0 0 0 0 0 0 0 0 0 0 0 0 0 0 0 0 0 0 0 0 0 0 0 0 0 0 0 0 0 0 0 0 0 0 0 0 0 0 0 0 0 0 0 0 0 0 15 219 271 368 478 135 496 373 422 343 290 299 250 245 171 127 165 84 143 220 247 290 192 244 170 180 202 274 362 378 380 315 296 224 241 202 187 269 255 202 235 147 214 248 180 156 195 118 110 100 95 99 99 94 95
 0 0 0 0 0 0 0 0 0 0 0 0 0 0 0 0 0 0 0 0 0 0 0 0 0 0 0 0 0 0 0 0 0 0 0 0 0 0 0 0 0 0 0 0 0 0 0 0 0 0 0 0 0 0 0 0 0 0 0 0 0 0 0 0 0 0 0 15 101 188 193 333 270 418 268 435 520 575 507 376 283 213 86 119 223 233 192 213 206 227 155 274 354 425 379 400 427 301 236 220 224 206 203 183 247 198 178 156 223 191 166 148 102 97 94 90 85 88 89 92 93
 0 0 0 0 0 0 0 0 0 0 0 0 0 0 0 0 0 0 0 0 0 0 0 0 0 0 0 0 0 0 0 0 0 0 0 0 0 0 0 0 0 0 0 0 0 0 0 0 0 0 0 0 0 0 0 0 0 0 0 0 0 0 0 0 0 0 0 0 0 6 101 189 204 145 426 459 256 395 488 611 579 414 293 187 70 88 153 197 186 127 177 206 268 310 444 469 485 346 256 219 159 235 215 198 232 184 171 167 183 104 86 86 74 81 80 77 113 161 170 190 152
 0 0 0 0 0 0 0 0 0 0 0 0 0 0 0 0 0 0 0 0 0 0 0 0 0 0 0 0 0 0 0 0 0 0 0 0 0 0 0 0 0 0 0 0 0 0 0 0 0 0 0 0 0 0 0 0 0 0 0 0 0 0 0 0 0 0 0 0 0 0 2 73 233 111 246 144 254 412 463 424 427 330 207 221 63 70 129 149 140 138 229 322 382 387 485 463 440 371 327 251 169 172 228 152 235 154 119 97 94 85 75 75 73 77 115 142 191 256 315 344 297
 0 0 0 0 0 0 0 0 0 0 0 0 0 0 0 0 0 0 0 0 0 0 0 0 0 0 0 0 0 0 0 0 0 0 0 0 0 0 0 0 0 0 0 0 0 0 0 0 0 0 0 0 0 0 0 0 0 0 0 0 0 0 0 0 0 0 0 0 0 0 0 0 39 269 76 131 232 186 286 330 325 330 264 191 73 64 88 134 151 242 234 229 265 399 473 414 325 372 316 262 200 169 177 138 105 89 80 85 80 72 69 68 89 129 227 260 290 520 688 548 449
 0 0 0 0 0 0 0 0 0 0 0 0 0 0 0 0 0 0 0 0 0 0 0 0 0 0 0 0 0 0 0 0 0 0 0 0 0 0 0 0 0 0 0 0 0 0 0 0 0 0 0 0 0 0 0 0 0 0 0 0 0 0 0 0 0 0 0 0 0 0 0 0 0 87 122 87 172 214 315 215 226 169 165 153 95 53 98 187 258 233 231 232 221 319 363 405 343 350 344 217 182 196 106 103 90 86 76 71 66 66 63 156 321 305 459 648 582 536 408 411 346
 0 0 0 0 0 0 0 0 0 0 0 0 0 0 0 0 0 0 0 0 0 0 0 0 0 0 0 0 0 0 0 0 0 0 0 0 0 0 0 0 0 0 0 0 0 0 0 0 0 0 0 0 0 0 0 0 0 0 0 0 0 0 0 0 0 0 0 0 0 0 0 0 0 0 0 0 0 147 200 263 195 126 134 176 46 40 134 224 196 174 327 177 321 291 273 294 257 249 223 246 185 141 96 87 80 76 68 63 60 59 141 314 433 471 462 386 300 317 295 341 339
 0 0 0 0 0 0 0 0 0 0 0 0 0 0 0 0 0 0 0 0 0 0 0 0 0 0 0 0 0 0 0 0 0 0 0 0 0 0 0 0 0 0 0 0 0 0 0 0 0 0 0 0 0 0 0 0 0 0 0 0 0 0 0 0 0 0 0 0 0 0 0 0 0 0 0 0 0 0 48 230 201 183 139 87 25 46 107 127 191 240 138 256 242 210 257 335 218 267 190 205 184 130 89 77 72 65 60 57 63 95 263 379 252 242 251 309 302 240 253 304 241
 0 0 0 0 0 0 0 0 0 0 0 0 0 0 0 0 0 0 0 0 0 0 0 0 0 0 0 0 0 0 0 0 0 0 0 0 0 0 0 0 0 0 0 0 0 0 0 0 0 0 0 0 0 0 0 0 0 0 0 0 0 0 0 0 0 0 0 0 0 0 0 0 0 0 0 0 0 0 0 57 244 237 173 77 25 27 169 267 294 110 233 184 283 239 251 246 180 189 187 145 107 83 70 66 62 56 51 51 122 149 190 247 208 219 201 219 269 253 223 228 201
 0 0 0 0 0 0 0 0 0 0 0 0 0 0 0 0 0 0 0 0 0 0 0 0 0 0 0 0 0 0 0 0 0 0 0 0 0 0 0 0 0 0 0 0 0 0 0 0 0 0 0 0 0 0 0 0 0 0 0 0 0 0 0 0 0 0 0 0 0 0 0 0 0 0 0 0 0 0 0 0 76 132 71 12 15 46 87 195 226 144 236 184 223 167 152 174 178 152 115 102 80 60 55 54 51 40 81 266 239 258 244 222 168 169 172 185 177 188 176 239 229
 0 0 0 0 0 0 0 0 0 0 0 0 0 0 0 0 0 0 0 0 0 0 0 0 0 0 0 0 0 0 0 0 0 0 0 0 0 0 0 0 0 0 0 0 0 0 0 0 0 0 0 0 0 0 0 0 0 0 0 0 0 0 0 0 0 0 0 0 0 0 0 0 0 0 0 0 0 0 0 0 0 0 18 8 10 58 71 79 105 77 121 101 109 111 108 120 112 104 97 85 76 68 48 46 37 45 156 151 199 160 169 147 144 145 155 161 158 164 154 152 155
 0 0 0 0 0 0 0 0 0 0 0 0 0 0 0 0 0 0 0 0 0 0 0 0 0 0 0 0 0 0 0 0 0 0 0 0 0 0 0 0 0 0 0 0 0 0 0 0 0 0 0 0 0 0 0 0 0 0 0 0 0 0 0 0 0 0 0 0 0 0 0 0 0 0 0 0 0 0 0 0 0 0 0 5 6 5 19 25 37 44 51 61 68 78 79 92 98 92 81 68 62 45 37 32 43 43 49 105 115 105 106 116 125 128 134 138 128 136 134 131 133
 0 0 0 0 0 0 0 0 0 0 0 0 0 0 0 0 0 0 0 0 0 0 0 0 0 0 0 0 0 0 0 0 0 0 0 0 0 0 0 0 0 0 0 0 0 0 0 0 0 0 0 0 0 0 0 0 0 0 0 0 0 0 0 0 0 0 0 0 0 0 0 0 0 0 0 0 0 0 0 0 0 0 0 0 0 0 0 5 25 28 33 40 53 59 70 75 74 71 62 55 46 27 33 34 34 43 41 62 79 79 89 98 102 103 105 114 117 121 116 124 110
 0 0 0 0 0 0 0 0 0 0 0 0 0 0 0 0 0 0 0 0 0 0 0 0 0 0 0 0 0 0 0 0 0 0 0 0 0 0 0 0 0 0 0 0 0 0 0 0 0 0 0 0 0 0 0 0 0 0 0 0 0 0 0 0 0 0 0 0 0 0 0 0 0 0 0 0 0 0 0 0 0 0 0 0 0 0 0 0 3 16 19 27 40 45 52 60 59 55 47 28 26 32 36 39 40 37 37 38 61 72 80 83 91 96 131 166 173 163 148 121 105
 0 0 0 0 0 0 0 0 0 0 0 0 0 0 0 0 0 0 0 0 0 0 0 0 0 0 0 0 0 0 0 0 0 0 0 0 0 0 0 0 0 0 0 0 0 0 0 0 0 0 0 0 0 0 0 0 0 0 0 0 0 0 0 0 0 0 0 0 0 0 0 0 0 0 0 0 0 0 0 0 0 0 0 0 0 0 0 0 0 10 13 18 23 30 33 33 31 35 19 26 20 33 35 42 35 33 32 40 55 64 93 103 131 184 218 193 169 178 88 75 79
 0 0 0 0 0 0 0 0 0 0 0 0 0 0 0 0 0 0 0 0 0 0 0 0 0 0 0 0 0 0 0 0 0 0 0 0 0 0 0 0 0 0 0 0 0 0 0 0 0 0 0 0 0 0 0 0 0 0 0 0 0 0 0 0 0 0 0 0 0 0 0 0 0 0 0 0 0 0 0 0 0 0 0 0 0 0 0 0 4 7 8 12 12 12 15 19 19 17 24 25 30 31 34 33 30 29 28 34 46 56 77 119 134 122 84 83 85 64 66 68 83
 0 0 0 0 0 0 0 0 0 0 0 0 0 0 0 0 0 0 0 0 0 0 0 0 0 0 0 0 0 0 0 0 0 0 0 0 0 0 0 0 0 0 0 0 0 0 0 0 0 0 0 0 0 0 0 0 0 0 0 0 0 0 0 0 0 0 0 0 0 0 0 0 0 0 0 0 0 0 0 0 0 0 0 0 0 0 0 0 0 0 8 8 11 17 16 23 26 21 21 28 26 30 29 26 25 25 25 29 32 61 69 85 60 54 50 50 54 58 60 64 82
 0 0 0 0 0 0 0 0 0 0 0 0 0 0 0 0 0 0 0 0 0 0 0 0 0 0 0 0 0 0 0 0 0 0 0 0 0 0 0 0 0 0 0 0 0 0 0 0 0 0 0 0 0 0 0 0 0 0 0 0 0 0 0 0 0 0 0 0 0 0 0 0 0 0 0 0 0 0 0 0 0 0 0 0 0 0 0 0 0 4 6 6 9 12 17 18 20 24 25 26 28 32 30 25 22 23 23 23 61 63 55 37 35 39 44 51 55 53 56 79 82
 0 0 0 0 0 0 0 0 0 0 0 0 0 0 0 0 0 0 0 0 0 0 0 0 0 0 0 0 0 0 0 0 0 0 0 0 0 0 0 0 0 0 0 0 0 0 0 0 0 0 0 0 0 0 0 0 0 0 0 0 0 0 0 0 0 0 0 0 0 0 0 0 0 0 0 0 0 0 0 0 0 0 0 0 0 0 0 0 0 0 6 10 9 12 17 14 19 20 23 22 26 27 24 21 24 20 20 18 19 21 26 30 28 38 47 55 49 51 48 59 39
 0 0 0 0 0 0 0 0 0 0 0 0 0 0 0 0 0 0 0 0 0 0 0 0 0 0 0 0 0 0 0 0 0 0 0 0 0 0 0 0 0 0 0 0 0 0 0 0 0 0 0 0 0 0 0 0 0 0 0 0 0 0 0 0 0 0 0 0 0 0 0 0 0 0 0 0 0 0 0 0 0 0 0 0 0 0 0 0 0 0 4 8 9 9 11 14 18 18 22 21 22 22 22 20 21 19 18 16 17 19 22 27 25 28 32 37 38 39 44 39 37
 0 0 0 0 0 0 0 0 0 0 0 0 0 0 0 0 0 0 0 0 0 0 0 0 0 0 0 0 0 0 0 0 0 0 0 0 0 0 0 0 0 0 0 0 0 0 0 0 0 0 0 0 0 0 0 0 0 0 0 0 0 0 0 0 0 0 0 0 0 0 0 0 0 0 0 0 0 0 0 0 0 0 0 0 0 0 0 0 0 0 0 10 5 9 9 12 18 15 19 18 14 21 18 17 19 19 15 15 17 18 18 19 21 25 27 34 34 37 40 39 46
 0 0 0 0 0 0 0 0 0 0 0 0 0 0 0 0 0 0 0 0 0 0 0 0 0 0 0 0 0 0 0 0 0 0 0 0 0 0 0 0 0 0 0 0 0 0 0 0 0 0 0 0 0 0 0 0 0 0 0 0 0 0 0 0 0 0 0 0 0 0 0 0 0 0 0 0 0 0 0 0 0 0 0 0 0 0 0 0 0 0 0 7 4 7 11 12 11 15 15 18 16 17 15 18 16 15 15 16 12 15 15 15 16 19 22 25 30 32 35 32 136
 0 0 0 0 0 0 0 0 0 0 0 0 0 0 0 0 0 0 0 0 0 0 0 0 0 0 0 0 0 0 0 0 0 0 0 0 0 0 0 0 0 0 0 0 0 0 0 0 0 0 0 0 0 0 0 0 0 0 0 0 0 0 0 0 0 0 0 0 0 0 0 0 0 0 0 0 0 0 0 0 0 0 0 0 0 0 0 0 0 0 0 0 5 6 7 8 10 11 14 15 14 15 14 16 16 14 16 12 10 12 12 12 13 16 20 23 25 33 76 85 64
 0 0 0 0 0 0 0 0 0 0 0 0 0 0 0 0 0 0 0 0 0 0 0 0 0 0 0 0 0 0 0 0 0 0 0 0 0 0 0 0 0 0 0 0 0 0 0 0 0 0 0 0 0 0 0 0 0 0 0 0 0 0 0 0 0 0 0 0 0 0 0 0 0 0 0 0 0 0 0 0 0 0 0 0 0 0 0 0 0 0 0 0 6 7 6 9 10 12 11 11 17 15 14 14 13 11 10 10 13 9 9 10 11 14 16 61 59 74 100 304 175
 0 0 0 0 0 0 0 0 0 0 0 0 0 0 0 0 0 0 0 0 0 0 0 0 0 0 0 0 0 0 0 0 0 0 0 0 0 0 0 0 0 0 0 0 0 0 0 0 0 0 0 0 0 0 0 0 0 0 0 0 0 0 0 0 0 0 0 0 0 0 0 0 0 0 0 0 0 0 0 0 0 0 0 0 0 0 0 0 0 0 0 0 0 4 2 6 7 9 10 11 12 11 13 10 15 9 10 9 8 8 7 10 10 20 14 58 58 216 253 247 333
 0 0 0 0 0 0 0 0 0 0 0 0 0 0 0 0 0 0 0 0 0 0 0 0 0 0 0 0 0 0 0 0 0 0 0 0 0 0 0 0 0 0 0 0 0 0 0 0 0 0 0 0 0 0 0 0 0 0 0 0 0 0 0 0 0 0 0 0 0 0 0 0 0 0 0 0 0 0 0 0 0 0 0 0 0 0 0 0 0 0 0 0 0 0 4 4 8 6 7 10 9 9 12 10 9 8 7 7 8 7 7 9 11 11 10 17 23 76 120 137 184
 0 0 0 0 0 0 0 0 0 0 0 0 0 0 0 0 0 0 0 0 0 0 0 0 0 0 0 0 0 0 0 0 0 0 0 0 0 0 0 0 0 0 0 0 0 0 0 0 0 0 0 0 0 0 0 0 0 0 0 0 0 0 0 0 0 0 0 0 0 0 0 0 0 0 0 0 0 0 0 0 0 0 0 0 0 0 0 0 0 0 0 0 0 0 6 0 7 3 8 7 7 8 8 8 7 9 6 7 10 5 5 6 5 7 8 20 83 136 198 265 268
 0 0 0 0 0 0 0 0 0 0 0 0 0 0 0 0 0 0 0 0 0 0 0 0 0 0 0 0 0 0 0 0 0 0 0 0 0 0 0 0 0 0 0 0 0 0 0 0 0 0 0 0 0 0 0 0 0 0 0 0 0 0 0 0 0 0 0 0 0 0 0 0 0 0 0 0 0 0 0 0 0 0 0 0 0 0 0 0 0 0 0 0 0 0 0 0 0 8 7 4 6 4 6 6 6 5 6 4 6 5 5 7 5 7 14 26 52 197 213 196 300
 0 0 0 0 0 0 0 0 0 0 0 0 0 0 0 0 0 0 0 0 0 0 0 0 0 0 0 0 0 0 0 0 0 0 0 0 0 0 0 0 0 0 0 0 0 0 0 0 0 0 0 0 0 0 0 0 0 0 0 0 0 0 0 0 0 0 0 0 0 0 0 0 0 0 0 0 0 0 0 0 0 0 0 0 0 0 0 0 0 0 0 0 0 0 0 0 0 0 0 3 0 3 4 4 5 5 6 7 7 6 4 5 6 13 24 116 235 201 188 186 195
 0 0 0 0 0 0 0 0 0 0 0 0 0 0 0 0 0 0 0 0 0 0 0 0 0 0 0 0 0 0 0 0 0 0 0 0 0 0 0 0 0 0 0 0 0 0 0 0 0 0 0 0 0 0 0 0 0 0 0 0 0 0 0 0 0 0 0 0 0 0 0 0 0 0 0 0 0 0 0 0 0 0 0 0 0 0 0 0 0 0 0 0 0 0 0 0 0 0 0 0 0 5 3 4 3 4 5 3 8 6 3 5 108 90 89 304 219 136 124 198 114
 0 0 0 0 0 0 0 0 0 0 0 0 0 0 0 0 0 0 0 0 0 0 0 0 0 0 0 0 0 0 0 0 0 0 0 0 0 0 0 0 0 0 0 0 0 0 0 0 0 0 0 0 0 0 0 0 0 0 0 0 0 0 0 0 0 0 0 0 0 0 0 0 0 0 0 0 0 0 0 0 0 0 0 0 0 0 0 0 0 0 0 0 0 0 0 0 0 0 0 0 0 0 5 1 1 0 5 2 4 4 6 46 236 308 417 434 368 188 130 84 179
 0 0 0 0 0 0 0 0 0 0 0 0 0 0 0 0 0 0 0 0 0 0 0 0 0 0 0 0 0 0 0 0 0 0 0 0 0 0 0 0 0 0 0 0 0 0 0 0 0 0 0 0 0 0 0 0 0 0 0 0 0 0 0 0 0 0 0 0 0 0 0 0 0 0 0 0 0 0 0 0 0 0 0 0 0 0 0 0 0 0 0 0 0 0 0 0 0 0 0 0 0 0 0 6 5 4 2 3 5 3 4 126 388 295 278 254 240 233 155 180 276
 0 0 0 0 0 0 0 0 0 0 0 0 0 0 0 0 0 0 0 0 0 0 0 0 0 0 0 0 0 0 0 0 0 0 0 0 0 0 0 0 0 0 0 0 0 0 0 0 0 0 0 0 0 0 0 0 0 0 0 0 0 0 0 0 0 0 0 0 0 0 0 0 0 0 0 0 0 0 0 0 0 0 0 0 0 0 0 0 0 0 0 0 0 0 0 0 0 0 0 0 0 0 0 0 0 5 4 4 5 0 4 113 264 268 222 227 261 240 121 289 216
 0 0 0 0 0 0 0 0 0 0 0 0 0 0 0 0 0 0 0 0 0 0 0 0 0 0 0 0 0 0 0 0 0 0 0 0 0 0 0 0 0 0 0 0 0 0 0 0 0 0 0 0 0 0 0 0 0 0 0 0 0 0 0 0 0 0 0 0 0 0 0 0 0 0 0 0 0 0 0 0 0 0 0 0 0 0 0 0 0 0 0 0 0 0 0 0 0 0 0 0 0 0 0 0 0 0 0 0 0 0 0 0 8 255 316 131 170 289 171 84 180
 0 0 0 0 0 0 0 0 0 0 0 0 0 0 0 0 0 0 0 0 0 0 0 0 0 0 0 0 0 0 0 0 0 0 0 0 0 0 0 0 0 0 0 0 0 0 0 0 0 0 0 0 0 0 0 0 0 0 0 0 0 0 0 0 0 0 0 0 0 0 0 0 0 0 0 0 0 0 0 0 0 0 0 0 0 0 0 0 0 0 0 0 0 0 0 0 0 0 0 0 0 0 0 0 0 0 0 0 0 0 0 0 0 0 0 0 48 229 82 196 337
 0 0 0 0 0 0 0 0 0 0 113 69 0 0 6 0 0 0 0 0 0 0 0 0 0 0 0 0 0 0 0 0 0 0 0 0 0 0 0 0 0 0 0 0 0 0 0 0 0 0 0 0 0 0 0 0 0 0 0 0 0 0 0 0 0 0 0 0 0 0 0 0 0 0 0 0 0 0 0 0 0 0 0 0 0 0 0 0 0 0 0 0 0 0 0 0 0 0 0 0 0 0 0 0 0 0 0 0 0 0 0 0 0 0 0 0 0 0 54 197 253
 0 0 0 0 0 0 0 0 0 0 68 143 219 191 198 159 137 154 95 0 0 0 0 0 0 0 0 0 0 0 0 0 0 0 0 0 0 0 0 0 0 0 0 0 0 0 0 0 0 0 0 0 0 0 0 0 0 0 0 0 0 0 0 0 0 0 0 0 0 0 0 0 0 0 0 0 0 0 0 0 0 0 0 0 0 0 0 0 0 0 0 0 0 0 0 0 0 0 0 0 0 0 0 0 0 0 0 0 0 0 0 0 0 0 0 0 0 0 0 16 14
 0 0 0 0 0 0 0 0 0 15 7 20 50 137 283 334 262 282 259 218 153 13 0 0 0 0 0 0 5 41 0 0 0 0 0 0 0 0 0 0 0 0 0 0 0 0 0 0 0 0 0 0 0 0 0 0 0 0 0 0 0 0 0 0 0 0 0 0 0 0 0 0 0 0 0 0 0 0 0 0 0 0 0 0 0 0 0 0 0 0 0 0 0 0 0 0 0 0 0 0 0 0 0 0 0 0 0 0 0 0 0 0 0 0 0 0 0 0 0 0 0
 0 0 0 0 0 0 0 0 0 0 0 0 0 56 125 235 486 362 366 324 222 160 119 51 122 137 218 213 107 58 151 55 0 0 0 0 0 0 0 0 0 0 0 0 0 0 0 0 0 0 104 50 97 48 0 0 0 0 0 0 0 0 0 0 0 0 0 0 0 0 0 0 0 0 0 0 0 0 0 0 0 0 0 0 0 0 0 0 0 0 0 0 0 0 0 0 0 0 0 0 0 0 0 0 0 0 0 0 0 0 0 0 0 0 0 0 0 0 0 0 0
 0 0 0 0 0 0 0 0 0 0 0 0 0 0 49 171 228 321 446 557 430 298 271 368 301 415 456 345 316 349 192 224 101 89 56 0 0 0 0 0 0 0 0 0 0 0 0 0 202 176 132 62 68 171 118 74 38 0 0 0 0 0 0 0 0 0 0 0 0 0 0 0 0 0 0 0 0 0 0 0 0 0 0 0 0 0 0 0 0 0 0 0 0 0 0 0 0 0 0 0 0 0 0 0 0 0 0 0 0 0 0 0 0 0 0 0 0 0 0 0 0
 0 0 0 0 0 0 0 0 0 0 0 0 0 0 0 68 153 162 233 363 562 449 439 513 467 527 569 605 607 514 385 296 252 198 148 116 0 0 0 0 0 0 0 0 0 0 0 0 211 322 295 326 259 225 161 129 62 58 0 0 0 0 0 0 0 0 0 0 0 0 0 0 0 0 0 0 0 0 0 0 0 0 0 0 0 0 0 0 0 0 0 0 0 0 0 0 0 0 0 0 0 0 0 0 0 0 0 0 0 0 0 0 0 0 0 0 0 0 0 0 0
 0 0 0 0 0 0 0 0 0 0 0 0 0 0 0 18 55 92 125 156 218 301 318 403 424 489 499 382 450 420 533 477 372 298 293 196 190 72 0 0 0 0 0 0 0 0 0 10 100 225 464 335 181 154 45 49 29 0 0 0 0 0 0 0 0 0 0 0 0 0 0 0 0 0 0 0 0 0 0 0 0 0 0 0 0 0 0 0 0 0 0 0 0 0 0 0 0 0 0 0 0 0 0 0 0 0 0 0 0 0 0 0 0 0 0 0 0 0 0 0 0
 0 0 0 0 0 0 0 0 0 0 0 0 0 0 0 68 123 106 99 189 255 275 174 237 402 314 324 352 321 366 402 447 411 526 509 377 318 189 18 114 8 135 0 0 0 0 51 281 270 324 354 483 371 204 113 0 0 0 0 0 0 0 0 0 0 0 0 0 0 0 0 0 0 0 0 0 0 4 0 0 0 0 0 0 0 0 0 0 0 0 0 0 0 0 0 0 0 0 0 0 0 0 0 0 0 0 0 0 0 0 0 0 0 0 0 0 0 0 0 0 0
 0 0 0 0 0 0 0 0 0 0 0 0 0 0 59 98 86 132 117 189 153 246 320 394 322 306 396 329 240 229 223 299 227 282 250 178 54 189 206 248 178 262 263 277 222 285 307 358 358 348 223 288 264 137 99 0 0 0 0 0 0 0 0 0 0 0 0 0 0 88 165 0 0 0 40 0 0 0 0 0 0 0 0 0 0 0 0 0 0 0 0 0 0 0 0 0 0 0 0 0 0 0 0 0 0 0 0 0 0 0 0 0 0 0 0 0 0 0 0 0 0
 0 0 0 0 0 0 0 0 0 0 0 0 0 0 7 128 235 202 262 248 194 221 264 184 161 349 280 417 363 397 303 119 83 137 106 198 238 312 379 372 371 303 326 428 385 329 309 315 265 272 154 102 90 106 0 0 0 0 0 0 0 0 0 0 0 0 0 0 0 0 0 0 0 0 0 0 0 0 0 0 0 0 0 0 0 0 0 0 0 0 0 0 0 0 0 0 0 0 0 0 0 0 0 0 0 0 0 0 0 0 0 0 0 0 0 0 0 0 0 0 0
